x,y,z,i,Timestamp,Id. Packet
6.16757965087891,-2.2733268737793,1.38279700279236,46,3413747414304,8040
5.45364427566528,-2.01992607116699,1.60820376873016,59,3413747514096,8040
4.41432476043701,-1.64907312393188,1.8891932964325,41,3413747692296,8040
4.40196228027344,-1.64464235305786,1.89204287528992,39,3413747694672,8040
4.28504467010498,-1.60278356075287,1.92157077789307,41,3413747718432,8040
4.13317966461182,-1.54809033870697,1.94711971282959,32,3413747746944,8040
3.95075297355652,-1.4829558134079,2.00591063499451,43,3413747792088,8040
3.80428147315979,-1.43040382862091,2.04427409172058,43,3413747827728,8040
3.45614433288574,-1.30509066581726,2.1276490688324,33,3413747918016,8040
NaN,NaN,NaN,NaN,NaN,NaN
1.43807530403137,-0.556936681270599,1.79674005508423,15,3413748459744,8040
NaN,NaN,NaN,NaN,NaN,NaN
1.43911111354828,-0.557398438453674,1.80347859859467,77,3413748462120,8040
1.44042885303497,-0.558030128479004,1.81608581542969,74,3413748466872,8040
1.45523607730865,-0.564256548881531,1.87981808185577,72,3413748485880,8040
1.47708213329315,-0.573286414146423,1.9610937833786,69,3413748507264,8040
1.49815893173218,-0.582033395767212,2.0447084903717,75,3413748528648,8040
1.21344792842865,-0.474925339221954,2.06198859214783,98,3413748692592,8040
1.20795977115631,-0.472827613353729,2.05946612358093,137,3413748694968,8040
1.19042181968689,-0.466160774230957,2.05670475959778,108,3413748704472,8040
0.93244856595993,-0.368057250976562,2.11213231086731,110,3413748885048,8040
0.881296038627625,-0.34861496090889,2.1692225933075,64,3413748934944,8040
0.932895541191101,-0.369363248348236,2.38294339179993,74,3413748956328,8040
0.927903354167938,-0.367423832416534,2.38011407852173,78,3413748958704,8040
0.915288925170898,-0.362611711025238,2.39775729179382,82,3413748970584,8040
NaN,NaN,NaN,NaN,NaN,NaN
1.03277766704559,-0.409404128789902,2.77599930763245,75,3413748984840,8040
0.64526504278183,-0.25679823756218,2.08730483055115,132,3413749079880,8040
0.536863684654236,-0.214377403259277,2.10792827606201,114,3413749165416,8040
NaN,NaN,NaN,NaN,NaN,NaN
0.462371200323105,-0.185049533843994,2.13668060302734,92,3413749227192,8040
0.418771505355835,-0.167789444327354,2.13570427894592,69,3413749260456,8040
0.413432151079178,-0.165965259075165,2.62648868560791,19,3413749324608,8040
0.00661600846797228,-0.00191855290904641,2.33852934837341,7,3413749588344,8040
-5.17991352081299,2.27171397209167,3.64585900306702,9,3413751187392,8040
-2.9731969833374,1.3276458978653,1.02950346469879,44,3413751612696,8040
-2.98404574394226,1.33369517326355,0.985471367835999,206,3413751634080,8040
NaN,NaN,NaN,NaN,NaN,NaN
-2.99560618400574,1.34061050415039,0.92064642906189,178,3413751664968,8040
-3.00371813774109,1.34505045413971,0.891617596149445,145,3413751679224,8040
-3.40216898918152,1.52990424633026,0.764233410358429,102,3413751779016,8040
-3.61475372314453,1.62827050685883,0.708247125148773,63,3413751819408,8040
-2.41026568412781,1.09202456474304,0.240081399679184,9,3413751957216,8040
-2.1943621635437,0.995198428630829,0.182513326406479,9,3413751980976,8040
-1.76430869102478,0.802398443222046,0.0658157169818878,12,3413752047504,8040
-1.52656602859497,0.695799708366394,0.00203519174829125,14,3413752099776,8040
-1.28702092170715,0.588431835174561,-0.0635942220687866,22,3413752173432,8040
NaN,NaN,NaN,NaN,NaN,NaN
NaN,NaN,NaN,NaN,NaN,NaN
-1.19586551189423,0.547572612762451,-0.0885511413216591,28,3413752209072,8040
NaN,NaN,NaN,NaN,NaN,NaN
2.61726832389832,-1.43523168563843,-0.461937576532364,10,3413756875536,8040
2.44170427322388,-1.34076285362244,-0.367674648761749,102,3413756911176,8040
2.48811411857605,-1.36980390548706,-0.250906705856323,105,3413756980080,8040
2.50656628608704,-1.3815690279007,-0.197166338562965,114,3413757010968,8040
2.56582927703857,-1.41752290725708,-0.0883159562945366,99,3413757072744,8040
6.28743839263916,-3.47450065612793,-0.1843571215868,22,3413757079872,8040
6.30041027069092,-3.48974823951721,0.0936588495969772,38,3413757141648,8040
6.30521821975708,-3.49334454536438,0.125899240374565,40,3413757148776,8040
6.40759515762329,-3.56081390380859,0.499400198459625,35,3413757229560,8040
6.43783664703369,-3.5795259475708,0.567883849143982,5,3413757243816,8040
1.05594408512115,-0.58951723575592,0.177018016576767,41,3413757353112,8040
1.06142437458038,-0.592996120452881,0.1927659958601,39,3413757372120,8040
1.06507313251495,-0.596401572227478,0.242235764861107,32,3413757433896,8040
3.89858675003052,-2.21215128898621,2.0040078163147,23,3413757792672,8040
3.83405566215515,-2.17629313468933,2.00254940986633,36,3413757802176,8040
3.58982706069946,-2.04263520240784,2.08765840530396,25,3413757868704,8040
3.31395530700684,-1.89090836048126,2.16225790977478,24,3413757944736,8040
2.9276077747345,-1.67393863201141,2.07350206375122,15,3413758001760,8040
2.2108907699585,-1.26632416248322,1.67293524742126,30,3413758049280,8040
2.03565955162048,-1.16938185691833,1.71729266643524,29,3413758130064,8040
2.02398777008057,-1.16277718544006,1.7128164768219,29,3413758132440,8040
NaN,NaN,NaN,NaN,NaN,NaN
1.97616791725159,-1.13628232479095,1.72542917728424,30,3413758156200,8040
1.97217237949371,-1.13427758216858,1.73806774616241,29,3413758163328,8040
1.95472586154938,-1.12443685531616,1.73340976238251,29,3413758168080,8040
1.86595261096954,-1.07521665096283,1.75969231128693,30,3413758215600,8040
NaN,NaN,NaN,NaN,NaN,NaN
1.8228919506073,-1.05121505260468,1.76689732074738,27,3413758236984,8040
1.82212650775909,-1.05086374282837,1.77153253555298,32,3413758239360,8040
1.82212793827057,-1.0509546995163,1.77692461013794,35,3413758241736,8040
1.81813788414001,-1.04910278320312,1.80013489723206,22,3413758253616,8040
1.83933174610138,-1.06296873092651,1.92283606529236,22,3413758296384,8040
2.03875732421875,-1.18113970756531,2.32510638237,31,3413758365288,8040
1.99291777610779,-1.15556693077087,2.34193849563599,28,3413758389048,8040
1.92548477649689,-1.11798620223999,2.37387561798096,26,3413758427064,8040
1.33772265911102,-0.778891146183014,1.8218047618866,24,3413758505472,8040
1.35152566432953,-0.787592947483063,1.89746451377869,75,3413758529232,8040
1.36482381820679,-0.796147644519806,1.9878511428833,100,3413758557744,8040
1.34053826332092,-0.782573759555817,2.00742816925049,102,3413758579128,8040
0.820991277694702,-0.485801368951797,2.1690559387207,109,3413758968792,8040
0.71819657087326,-0.42655223608017,2.32846117019653,111,3413759080464,8040
NaN,NaN,NaN,NaN,NaN,NaN
0.627671897411346,-0.37293154001236,2.08380079269409,137,3413759092344,8040
0.591666579246521,-0.351888298988342,2.09363389015198,118,3413759123232,8040
0.517162442207336,-0.308195918798447,2.11338973045349,118,3413759187384,8040
0.43973171710968,-0.262569427490234,2.1309289932251,92,3413759253912,8040
0.42995485663414,-0.256800651550293,2.13963770866394,66,3413759263416,8040
0.417550832033157,-0.249900698661804,2.66144299507141,15,3413759341824,8040
0.0135014103725553,-0.00742402160540223,2.25477933883667,7,3413759619816,8040
-0.199766784906387,0.12274319678545,2.51847863197327,15,3413759779008,8040
NaN,NaN,NaN,NaN,NaN,NaN
-0.238388270139694,0.146455064415932,2.55212783813477,15,3413759805144,8040
-0.264700949192047,0.162631750106812,2.58510994911194,15,3413759821776,8040
-0.396943420171738,0.244172468781471,2.73640775680542,23,3413759900184,8040
-0.431585222482681,0.265592992305756,2.77558469772339,20,3413759919192,8040
-0.435816496610641,0.268211543560028,2.77943325042725,19,3413759921568,8040
-0.530880630016327,0.327122688293457,2.87880325317383,9,3413759971464,8040
-0.687615692615509,0.424547225236893,3.06319975852966,16,3413760042744,8040
-0.901012599468231,0.55770468711853,3.30799007415771,103,3413760125904,8040
-0.941509902477264,0.5831179022789,3.32068943977356,96,3413760144912,8040
-0.854059338569641,0.529673635959625,2.76446318626404,137,3413760187680,8040
-1.15731382369995,0.719013452529907,3.38275647163391,68,3413760242328,8040
-0.961931109428406,0.598883986473083,2.51667356491089,72,3413760306480,8040
-1.00791954994202,0.628107786178589,2.5166916847229,122,3413760334992,8040
-1.17510735988617,0.734328985214233,2.57935833930969,68,3413760418152,8040
-1.30737626552582,0.818750023841858,2.61388683319092,64,3413760482304,8040
-1.49977123737335,0.941962897777557,2.6640522480011,65,3413760567840,8040
-1.61085212230682,1.01328408718109,2.6942126750946,60,3413760612984,8040
NaN,NaN,NaN,NaN,NaN,NaN
-1.64318215847015,1.03403925895691,2.70566391944885,62,3413760624864,8040
NaN,NaN,NaN,NaN,NaN,NaN
-1.74192810058594,1.09760105609894,2.72972202301025,59,3413760662880,8040
NaN,NaN,NaN,NaN,NaN,NaN
-1.77722525596619,1.12029635906219,2.74267768859863,59,3413760674760,8040
-1.95959031581879,1.23786389827728,2.79500794410706,51,3413760736536,8040
-2.20599746704102,1.39715278148651,2.8600709438324,58,3413760812568,8040
-2.28097438812256,1.44569885730743,2.87950396537781,46,3413760833952,8040
-2.56535482406616,1.63005888462067,2.95514631271362,38,3413760907608,8040
-2.81564140319824,1.79260456562042,3.02112984657288,35,3413760964632,8040
NaN,NaN,NaN,NaN,NaN,NaN
-2.96963620185852,1.89265632629395,3.06554889678955,34,3413760995520,8040
-3.00746917724609,1.91723895072937,3.07694888114929,34,3413761002648,8040
-3.14572381973267,2.00717949867249,3.11418604850769,30,3413761028784,8040
-3.18912696838379,2.03537273406982,3.1288366317749,31,3413761035912,8040
-4.84001016616821,3.09836792945862,4.24265575408936,35,3413761123824,8040
-5.34124612808228,3.42427897453308,4.42654085159302,61,3413761166592,8040
-5.36419439315796,3.44180727005005,4.30707502365112,81,3413761190352,8040
NaN,NaN,NaN,NaN,NaN,NaN
-5.45653295516968,3.51225233078003,3.85694599151611,83,3413761283016,8040
NaN,NaN,NaN,NaN,NaN,NaN
-5.4956431388855,3.54264521598816,3.65296578407288,73,3413761325784,8040
NaN,NaN,NaN,NaN,NaN,NaN
-5.51559591293335,3.55812931060791,3.55255031585693,75,3413761347168,8040
-9.82438659667969,6.35386276245117,5.65135622024536,15,3413761420824,8040
-9.83285999298096,6.36142873764038,5.57106590270996,18,3413761430328,8040
-8.08012771606445,5.2343487739563,4.3018364906311,22,3413761468344,8040
-8.09138107299805,5.24378728866577,4.22258472442627,21,3413761480224,8040
-8.09969425201416,5.25003528594971,4.19294261932373,21,3413761484976,8040
-8.59247779846191,5.62680101394653,2.33809351921082,44,3413761781976,8040
-2.50148606300354,1.64982271194458,0.283692240715027,8,3413761988688,8040
NaN,NaN,NaN,NaN,NaN,NaN
-1.87085926532745,1.23703896999359,0.108345039188862,11,3413762062344,8040
NaN,NaN,NaN,NaN,NaN,NaN
-1.81988775730133,1.20363163948059,0.0956414714455605,11,3413762069472,8040
NaN,NaN,NaN,NaN,NaN,NaN
-1.54284954071045,1.02241337299347,0.0149886887520552,16,3413762126496,8040
-1.51108801364899,1.00152981281281,0.00928619783371687,16,3413762131248,8040
NaN,NaN,NaN,NaN,NaN,NaN
-1.3224219083786,0.878137588500977,-0.0462033040821552,21,3413762185896,8040
-1.29923284053802,0.862951219081879,-0.0523650795221329,22,3413762193024,8040
-1.16475713253021,0.77496463060379,-0.0907903090119362,28,3413762242920,8040
-1.0112224817276,0.674467265605927,-0.133559241890907,33,3413762314200,8040
0.955312728881836,-0.726638853549957,-0.678042352199554,6,3413766336768,8040
1.10717630386353,-0.843769252300262,-0.722119212150574,13,3413766393792,8040
1.3790374994278,-1.0537234544754,-0.794824957847595,13,3413766472200,8040
2.0232138633728,-1.57009208202362,-0.355750620365143,26,3413766937896,8040
2.02667045593262,-1.57302165031433,-0.348606556653976,81,3413766942648,8040
2.0401656627655,-1.58623433113098,-0.265414744615555,86,3413766994920,8040
2.04220867156982,-1.5924357175827,-0.122669525444508,25,3413767082832,8040
2.03437232971191,-1.59005427360535,-0.00704519264400005,77,3413767154112,8040
5.86510896682739,-4.59884452819824,0.43448480963707,32,3413767251528,8040
0.963156938552856,-0.756687462329865,0.117204017937183,53,3413767310928,8040
NaN,NaN,NaN,NaN,NaN,NaN
0.969296872615814,-0.763352274894714,0.175740331411362,45,3413767384584,8040
0.974254012107849,-0.768330574035645,0.210750073194504,41,3413767427352,8040
NaN,NaN,NaN,NaN,NaN,NaN
3.75455093383789,-2.9967155456543,2.02365350723267,20,3413767795632,8040
2.54619741439819,-2.03618192672729,1.51841974258423,45,3413767855032,8040
2.50878500938416,-2.01074767112732,1.66967535018921,56,3413767923936,8040
2.50269174575806,-2.00663566589355,1.69626641273499,58,3413767935816,8040
2.84693217277527,-2.29090070724487,2.27218294143677,24,3413768047488,8040
2.83686017990112,-2.28297090530396,2.27172660827637,24,3413768049864,8040
2.02399706840515,-1.63081657886505,1.70878386497498,28,3413768087880,8040
1.92842054367065,-1.55630815029144,1.74229395389557,29,3413768137776,8040
1.8401073217392,-1.48719608783722,1.76538348197937,32,3413768182920,8040
NaN,NaN,NaN,NaN,NaN,NaN
1.77729284763336,-1.43785667419434,1.77559173107147,29,3413768213808,8040
1.71421980857849,-1.38831281661987,1.78813910484314,29,3413768247072,8040
1.66348135471344,-1.34845471382141,1.80008900165558,29,3413768275584,8040
1.54078614711761,-1.2516622543335,1.81497263908386,10,3413768342112,8040
1.51957368850708,-1.23518180847168,1.83365452289581,34,3413768361120,8040
1.45083868503571,-1.18101406097412,1.85362708568573,27,3413768406264,8040
NaN,NaN,NaN,NaN,NaN,NaN
1.44293344020844,-1.17475724220276,1.85463619232178,26,3413768411016,8040
1.32991540431976,-1.08463311195374,1.83173596858978,12,3413768465664,8040
1.23573541641235,-1.01033973693848,1.88067865371704,76,3413768544072,8040
1.25684607028961,-1.02883970737457,2.0086977481842,120,3413768582088,8040
0.58090752363205,-0.483376294374466,2.08087825775146,88,3413769111936,8040
0.561871647834778,-0.467732310295105,2.07042741775513,91,3413769126192,8040
0.519443809986115,-0.432980000972748,2.10251474380493,108,3413769171336,8040
NaN,NaN,NaN,NaN,NaN,NaN
0.429516136646271,-0.358901679515839,2.13708972930908,124,3413769259248,8040
0.435128271579742,-0.363821595907211,2.30490040779114,38,3413769283008,8040
0.411485493183136,-0.344202399253845,2.28218841552734,23,3413769299640,8040
0.33284592628479,-0.278960257768631,2.38240194320679,10,3413769380424,8040
-0.183179587125778,0.157129317522049,2.8017258644104,40,3413769805728,8040
-0.209268182516098,0.179477021098137,2.80914187431335,47,3413769824736,8040
-0.288043409585953,0.247117564082146,2.82535934448242,38,3413769881760,8040
-0.305685728788376,0.262505054473877,2.3582181930542,46,3413769938784,8040
-0.372673749923706,0.32043519616127,2.36468505859375,48,3413769995808,8040
-0.452137470245361,0.38939043879509,2.38563251495361,49,3413770059960,8040
-0.575758397579193,0.497152745723724,2.41963481903076,67,3413770155000,8040
-0.610067367553711,0.527171313762665,2.42519378662109,69,3413770181136,8040
-0.647133588790894,0.559623837471008,2.43929386138916,73,3413770207272,8040
-0.737407922744751,0.638894379138947,2.46065020561218,79,3413770271424,8040
-0.821732640266418,0.713168263435364,2.4816153049469,80,3413770328448,8040
-0.851610541343689,0.739522278308868,2.49142050743103,76,3413770347456,8040
-1.00863146781921,0.878476619720459,2.53137707710266,70,3413770444872,8040
-1.14170980453491,0.996638238430023,2.57344794273376,68,3413770518528,8040
-1.79164981842041,1.56837594509125,3.56588053703308,43,3413770608816,8040
-1.81056106090546,1.5853990316391,3.55795049667358,25,3413770618320,8040
-2.0199294090271,1.77240240573883,3.63683485984802,51,3413770684848,8040
-2.00534749031067,1.75986862182617,3.58842420578003,41,3413770689600,8040
-2.19525837898254,1.92982804775238,3.66249680519104,39,3413770744248,8040
-2.42828917503357,2.13866281509399,3.7588906288147,84,3413770803648,8040
-2.60960674285889,2.3017885684967,3.80699753761292,48,3413770851168,8040
-2.98656344413757,2.6413848400116,3.91847276687622,43,3413770936704,8040
-2.89173722267151,2.56346893310547,3.46251082420349,12,3413771010360,8040
-3.56439137458801,3.16522431373596,3.98573923110962,60,3413771065008,8040
-3.7312183380127,3.32059931755066,3.82266402244568,29,3413771133912,8040
-3.90657687187195,3.48032331466675,3.83405804634094,18,3413771167176,8040
-4.93519830703735,4.41662788391113,3.99825930595398,30,3413771309736,8040
-4.93684387207031,4.41843366622925,3.98628878593445,31,3413771312112,8040
-3.08829760551453,2.8095531463623,0.934834718704224,40,3413771825328,8040
-2.38524174690247,2.18533611297607,0.265556424856186,8,3413772046296,8040
-2.07060575485229,1.89894604682922,0.176005572080612,8,3413772077184,8040
NaN,NaN,NaN,NaN,NaN,NaN
-1.53950464725494,1.41553235054016,0.0250556636601686,14,3413772157968,8040
-1.36675250530243,1.25831913948059,-0.0247327219694853,17,3413772198360,8040
-1.2789272069931,1.17835891246796,-0.0490357875823975,19,3413772222120,8040
-1.12150645256042,1.03505063056946,-0.0930890291929245,23,3413772274392,8040
-0.928970634937286,0.859780013561249,-0.147452220320702,30,3413772362304,8040
NaN,NaN,NaN,NaN,NaN,NaN
0.866183996200562,-0.909471273422241,-0.657742083072662,17,3413776425264,8040
0.990500152111053,-1.04185628890991,-0.691277980804443,12,3413776479912,8040
1.05972015857697,-1.11535620689392,-0.717421889305115,10,3413776498920,8040
0.825305998325348,-0.877795815467834,-0.28733766078949,23,3413776822056,8040
0.831177413463593,-0.886966109275818,-0.208878681063652,24,3413776924224,8040
0.842317163944244,-0.900441467761993,-0.168703034520149,29,3413776978872,8040
0.876668274402618,-0.940185189247131,-0.0946935415267944,8,3413777078664,8040
1.23689019680023,-1.32843780517578,-0.0822443664073944,6,3413777123808,8040
0.940350413322449,-1.03308022022247,0.584569990634918,28,3413777829480,8040
NaN,NaN,NaN,NaN,NaN,NaN
0.953818142414093,-1.0504252910614,0.674735486507416,33,3413777905512,8040
0.970620512962341,-1.07087790966034,0.751666307449341,37,3413777962536,8040
2.65120148658752,-2.932377576828,2.30906224250793,21,3413778040944,8040
NaN,NaN,NaN,NaN,NaN,NaN
1.96496558189392,-2.17484498023987,1.76504969596863,25,3413778062328,8040
1.77221536636353,-1.96656394004822,1.78242301940918,11,3413778143112,8040
NaN,NaN,NaN,NaN,NaN,NaN
1.70715630054474,-1.89623475074768,1.79055321216583,25,3413778174000,8040
1.68796360492706,-1.87562561035156,1.79893827438354,25,3413778185880,8040
1.66312098503113,-1.84885990619659,1.80658388137817,26,3413778200136,8040
1.61329472064972,-1.79496133327484,1.81430208683014,26,3413778226272,8040
1.522212266922,-1.69656836986542,1.83879280090332,25,3413778280920,8040
1.37598562240601,-1.53822875022888,1.87805354595184,31,3413778375960,8040
1.2945271730423,-1.44978260993958,1.89975702762604,35,3413778432984,8040
NaN,NaN,NaN,NaN,NaN,NaN
1.11627566814423,-1.25438559055328,1.87670290470123,30,3413778539904,8040
1.10475039482117,-1.24459946155548,2.0607168674469,82,3413778620688,8040
1.07843101024628,-1.21603846549988,2.0877730846405,93,3413778649200,8040
0.787879526615143,-0.899991154670715,2.83084154129028,92,3413779067376,8040
0.533361077308655,-0.610125482082367,2.08911037445068,96,3413779114896,8040
NaN,NaN,NaN,NaN,NaN,NaN
0.451438218355179,-0.51778519153595,2.11873912811279,90,3413779205184,8040
NaN,NaN,NaN,NaN,NaN,NaN
0.410271853208542,-0.471583127975464,2.29473495483398,88,3413779281216,8040
0.412253797054291,-0.474963575601578,2.93752980232239,67,3413779369128,8040
NaN,NaN,NaN,NaN,NaN,NaN
NaN,NaN,NaN,NaN,NaN,NaN
0.327689349651337,-0.377775520086288,2.53793287277222,14,3413779395264,8040
-0.15163317322731,0.178924515843391,2.79995393753052,50,3413779839576,8040
-0.176381692290306,0.20809169113636,2.80472040176392,40,3413779860960,8040
-0.181323170661926,0.213920146226883,2.79690718650818,41,3413779865712,8040
-0.19707790017128,0.232593014836311,2.31090760231018,33,3413779915608,8040
-0.233888328075409,0.276207715272903,2.31687927246094,36,3413779953624,8040
-0.258233845233917,0.305102735757828,2.33085608482361,47,3413779977384,8040
-0.341166615486145,0.403857618570328,2.35965061187744,47,3413780058168,8040
-0.372610926628113,0.441436797380447,2.36320328712463,49,3413780089056,8040
NaN,NaN,NaN,NaN,NaN,NaN
-0.439442604780197,0.521497488021851,2.38581681251526,57,3413780150832,8040
-0.447403699159622,0.531051993370056,2.3889331817627,60,3413780157960,8040
-0.497038275003433,0.590730547904968,2.40067911148071,69,3413780203104,8040
-0.519656836986542,0.617997825145721,2.40011620521545,67,3413780224488,8040
-0.597935259342194,0.71249383687973,2.42563104629517,76,3413780291016,8040
-0.91020143032074,1.08653450012207,3.32132649421692,70,3413780350416,8040
NaN,NaN,NaN,NaN,NaN,NaN
-1.00030863285065,1.19600737094879,3.34586381912231,65,3413780402688,8040
NaN,NaN,NaN,NaN,NaN,NaN
-1.16796815395355,1.40037059783936,3.39736390113831,64,3413780492976,8040
-1.13596987724304,1.36738395690918,2.76461696624756,36,3413780618904,8040
-1.13773512840271,1.36961126327515,2.76000189781189,53,3413780621280,8040
-1.45948219299316,1.76727426052094,2.78292036056519,26,3413780806608,8040
-1.46015191078186,1.76821887493134,2.77589726448059,26,3413780808984,8040
NaN,NaN,NaN,NaN,NaN,NaN
-1.68481576442719,2.04694533348083,2.82068753242493,39,3413780911152,8040
-2.08191108703613,2.53304839134216,3.2966320514679,36,3413780956296,8040
-2.06795001029968,2.51721119880676,3.21746277809143,38,3413780970552,8040
-2.37057113647461,2.90015053749084,3.03518104553223,7,3413781127368,8040
-2.44089579582214,2.98801445960999,3.05102252960205,9,3413781146376,8040
-2.49666810035706,3.05792665481567,3.05546379089355,9,3413781163008,8040
-1.90861642360687,2.36481285095215,1.41402542591095,16,3413781519408,8040
NaN,NaN,NaN,NaN,NaN,NaN
NaN,NaN,NaN,NaN,NaN,NaN
-1.93590307235718,2.405681848526,1.22964680194855,31,3413781609696,8040
-1.94677889347076,2.42200899124146,1.15778017044067,31,3413781645336,8040
-1.94828319549561,2.42463159561157,1.13786017894745,33,3413781654840,8040
-1.66651213169098,2.08753776550293,0.613420784473419,34,3413781854424,8040
-1.66735661029816,2.08875775337219,0.609576284885406,57,3413781856800,8040
-1.66863095760345,2.09165596961975,0.576861023902893,46,3413781875808,8040
-1.66998171806335,2.09383773803711,0.564913213253021,36,3413781882936,8040
-1.65181195735931,2.07573914527893,0.441001147031784,54,3413781951840,8040
-1.59164130687714,2.01281571388245,0.113569959998131,14,3413782144296,8040
NaN,NaN,NaN,NaN,NaN,NaN
NaN,NaN,NaN,NaN,NaN,NaN
-1.59130501747131,2.01254773139954,0.109727196395397,8,3413782146672,8040
-1.33621466159821,1.69470167160034,-0.0233441647142172,24,3413782232208,8040
-1.04106473922729,1.32399761676788,-0.10605838149786,22,3413782315368,8040
-0.937934041023254,1.19452655315399,-0.136546090245247,28,3413782358136,8040
-0.902706384658813,1.1503849029541,-0.149032682180405,30,3413782377144,8040
-0.802176058292389,1.02412569522858,-0.177734196186066,31,3413782431792,8040
0.768988966941833,-1.12256002426147,-0.638897001743317,8,3413786532768,8055
0.819336175918579,-1.19705164432526,-0.654968321323395,11,3413786556528,8055
0.949089705944061,-1.44683980941772,0.609439134597778,31,3413787775416,8055
0.942467570304871,-1.44163167476654,0.727382123470306,24,3413787872832,8055
2.67357873916626,-4.09807777404785,2.28425168991089,19,3413787932232,8055
2.52665281295776,-3.87929034233093,2.33130598068237,17,3413787979752,8055
2.30224776268005,-3.54442691802979,2.39508700370789,18,3413788058160,8055
1.57295596599579,-2.42787194252014,1.820347905159,22,3413788131816,8055
1.47326064109802,-2.2785165309906,1.84567999839783,23,3413788188840,8055
1.46380352973938,-2.26445293426514,1.85179877281189,22,3413788195968,8055
NaN,NaN,NaN,NaN,NaN,NaN
1.43836987018585,-2.22639846801758,1.86125862598419,21,3413788212600,8055
1.39245176315308,-2.15746665000916,1.87238204479218,21,3413788241112,8055
1.35567450523376,-2.10658025741577,2.03440618515015,14,3413788324272,8055
1.35343563556671,-2.10379767417908,2.05633091926575,15,3413788333776,8055
1.51597988605499,-2.36465978622437,2.61922168731689,23,3413788433568,8055
NaN,NaN,NaN,NaN,NaN,NaN
0.98067432641983,-1.53461408615112,1.90719950199127,28,3413788526232,8055
0.973720967769623,-1.52776122093201,2.0875985622406,80,3413788602264,8055
0.71392148733139,-1.13710272312164,2.84354615211487,87,3413789039448,8055
0.665320873260498,-1.06130743026733,2.85943341255188,90,3413789084592,8055
0.424838751554489,-0.679575145244598,2.12387013435364,98,3413789167752,8055
0.371130883693695,-0.595001399517059,2.13253951072693,92,3413789236656,8055
0.34953773021698,-0.560938239097595,2.14905619621277,101,3413789267544,8055
0.371446579694748,-0.596545934677124,2.41211128234863,57,3413789291304,8055
NaN,NaN,NaN,NaN,NaN,NaN
0.365108549594879,-0.587896764278412,2.95637774467468,77,3413789376840,8055
0.273291558027267,-0.441107720136642,2.93635988235474,7,3413789464752,8055
-0.102962978184223,0.170309379696846,2.28481531143188,33,3413789882928,8055
-0.148164868354797,0.245135873556137,2.29674744606018,29,3413789942328,8055
-0.201987057924271,0.334632277488708,2.31573557853699,41,3413790011232,8055
-0.266842871904373,0.443032592535019,2.33702063560486,50,3413790092016,8055
-0.276678472757339,0.459521472454071,2.34109711647034,50,3413790103896,8055
NaN,NaN,NaN,NaN,NaN,NaN
-0.288781553506851,0.479859679937363,2.33253860473633,46,3413790120528,8055
-0.308431476354599,0.512843728065491,2.35319662094116,48,3413790141912,8055
-0.374162435531616,0.623680174350739,2.36687564849854,61,3413790220320,8055
-0.452172845602036,0.755005598068237,2.56214785575867,61,3413790272592,8055
NaN,NaN,NaN,NaN,NaN,NaN
-0.682238936424255,1.14261662960052,3.26169395446777,71,3413790362880,8055
-0.695845723152161,1.16597211360931,3.24482464790344,57,3413790377136,8055
-0.957939207553864,1.61563587188721,3.32779216766357,42,3413790564840,8055
-0.962757647037506,1.62389838695526,3.33314371109009,41,3413790567216,8055
-0.834240555763245,1.41126668453217,2.57234811782837,56,3413790650376,8055
-0.915384352207184,1.55115306377411,2.64877557754517,33,3413790697896,8055
NaN,NaN,NaN,NaN,NaN,NaN
-0.970212042331696,1.64726889133453,2.61442828178406,43,3413790752544,8055
NaN,NaN,NaN,NaN,NaN,NaN
NaN,NaN,NaN,NaN,NaN,NaN
-1.08658516407013,1.84988534450531,2.6585099697113,44,3413790828576,8055
NaN,NaN,NaN,NaN,NaN,NaN
-1.16131174564362,1.97879457473755,2.75815200805664,57,3413790852336,8055
NaN,NaN,NaN,NaN,NaN,NaN
-1.47792816162109,2.5404679775238,2.60477304458618,24,3413791094688,8055
-1.50132715702057,2.58740019798279,2.42167806625366,30,3413791165968,8055
-1.51732182502747,2.61950731277466,2.30500507354736,29,3413791213488,8055
-1.52642714977264,2.63774657249451,2.2426609992981,29,3413791239624,8055
NaN,NaN,NaN,NaN,NaN,NaN
-1.55629003047943,2.69920539855957,2.00549793243408,20,3413791339416,8055
-1.55521607398987,2.69757795333862,1.99769878387451,18,3413791341792,8055
-1.57045423984528,2.7280547618866,1.90889465808868,18,3413791382184,8055
-1.59419167041779,2.77559781074524,1.77549576759338,17,3413791443960,8055
-1.59571719169617,2.78142166137695,1.69845616817474,15,3413791474848,8055
-1.60565280914307,2.80291843414307,1.60767877101898,16,3413791515240,8055
-1.63232839107513,2.86003041267395,1.38959753513336,16,3413791615032,8055
0.683148443698883,-1.47950541973114,-0.191152691841125,5,3413797084584,8055
NaN,NaN,NaN,NaN,NaN,NaN
0.683494687080383,-1.48115265369415,-0.176604196429253,11,3413797098840,8055
0.677466928958893,-1.47002005577087,-0.14363868534565,7,3413797129728,8055
2.7280809879303,-5.93878507614136,-0.26757937669754,23,3413797205760,8055
2.74223971366882,-5.97807025909424,-0.132215231657028,26,3413797239024,8055
0.917982280254364,-2.01013588905334,0.10025142878294,4,3413797343568,8055
0.697997331619263,-1.53323829174042,0.154469698667526,39,3413797417224,8055
0.725784122943878,-1.60108196735382,0.272694885730743,47,3413797517016,8055
1.26759076118469,-2.87178516387939,1.89046382904053,12,3413798137152,8055
1.2023674249649,-2.73017406463623,1.93231391906738,18,3413798189424,8055
NaN,NaN,NaN,NaN,NaN,NaN
1.17822527885437,-2.67700338363647,1.93175828456879,18,3413798203680,8055
1.15353798866272,-2.62279653549194,1.93556082248688,18,3413798220312,8055
1.13913071155548,-2.59057068824768,1.92399907112122,17,3413798225064,8055
1.11941301822662,-2.54991602897644,1.99181115627289,11,3413798263080,8055
1.32327699661255,-3.02609539031982,2.6566424369812,17,3413798353368,8055
0.811683416366577,-1.8668919801712,1.93750441074371,17,3413798486424,8055
0.828265607357025,-1.90816915035248,2.07637333869934,65,3413798524440,8055
0.833849728107452,-1.92202210426331,2.12261414527893,63,3413798536320,8055
0.802541434764862,-1.85214138031006,2.11939859390259,75,3413798564832,8055
0.789217114448547,-1.82289052009583,2.13597869873047,75,3413798583840,8055
0.594326615333557,-1.39788448810577,2.87644505500793,70,3413799004392,8055
0.541922509670258,-1.27799355983734,2.89449787139893,82,3413799066168,8055
0.351801097393036,-0.832314848899841,2.13976263999939,89,3413799142200,8055
0.302076041698456,-0.717231273651123,2.15863108634949,93,3413799227736,8055
NaN,NaN,NaN,NaN,NaN,NaN
0.299761027097702,-0.711874485015869,2.16259098052979,101,3413799232488,8055
0.31077453494072,-0.739326536655426,2.45064949989319,69,3413799275256,8055
0.339678704738617,-0.809178054332733,2.88346362113953,68,3413799308520,8055
0.300474315881729,-0.717535436153412,2.96280193328857,87,3413799370296,8055
0.161867618560791,-0.38776969909668,2.03930807113647,10,3413799455832,8055
0.212338954210281,-0.509252727031708,2.99169707298279,11,3413799489096,8055
-0.0742080882191658,0.183568686246872,2.27256441116333,35,3413799919152,8055
-0.0781925469636917,0.193415120244026,2.27690434455872,37,3413799926280,8055
-0.106769904494286,0.264224499464035,2.28454065322876,29,3413799978552,8055
-0.124139331281185,0.307420790195465,2.29540300369263,32,3413800009440,8055
-0.129974320530891,0.321951299905777,2.30670261383057,34,3413800018944,8055
NaN,NaN,NaN,NaN,NaN,NaN
-0.17521308362484,0.435132414102554,2.31430816650391,47,3413800099728,8055
-0.181796938180923,0.451676189899445,2.31361889839172,45,3413800111608,8055
NaN,NaN,NaN,NaN,NaN,NaN
-0.201463356614113,0.501158833503723,2.32521343231201,47,3413800144872,8055
-0.336201220750809,0.838933348655701,3.17474126815796,62,3413800223280,8055
-0.427721709012985,1.07232940196991,3.18969917297363,69,3413800334952,8055
-0.590874254703522,1.49301934242249,3.25017786026001,68,3413800513152,8055
-0.597389698028564,1.50996446609497,3.25030970573425,75,3413800520280,8055
-0.585178971290588,1.48915553092957,2.56880259513855,32,3413800669968,8055
NaN,NaN,NaN,NaN,NaN,NaN
-0.585159659385681,1.48926794528961,2.56046223640442,35,3413800672344,8055
-0.731412053108215,1.86290514469147,3.12951850891113,59,3413800688976,8055
-0.693195879459381,1.77543830871582,2.53418636322021,56,3413800810152,8055
-0.80926638841629,2.08326840400696,2.58292460441589,15,3413800919448,8055
-0.85762083530426,2.21314167976379,2.56814312934875,16,3413800971720,8055
-0.958470046520233,2.48361110687256,2.57988357543945,15,3413801059632,8055
-1.07117605209351,2.78468704223633,2.65161991119385,12,3413801128536,8055
-1.17392218112946,3.05969047546387,2.71761107444763,38,3413801183184,8055
-1.25188374519348,3.31101274490356,1.93544113636017,33,3413801489688,8055
NaN,NaN,NaN,NaN,NaN,NaN
-1.26714134216309,3.36291003227234,1.76136422157288,33,3413801560968,8055
-1.27461993694305,3.38742542266846,1.69442856311798,35,3413801589480,8055
-1.28200852870941,3.41373419761658,1.59599351882935,38,3413801629872,8055
-1.30743300914764,3.49795794487,1.3696494102478,47,3413801727288,8055
-1.32299876213074,3.55235075950623,1.19508731365204,50,3413801800944,8055
-0.928337395191193,2.50341629981995,0.682724893093109,39,3413801888856,8055
-0.929243803024292,2.50644564628601,0.675061225891113,40,3413801893608,8055
-0.938331365585327,2.53509926795959,0.623034477233887,52,3413801926872,8055
-1.37204277515411,3.72558760643005,0.651022613048553,36,3413802029040,8055
-0.943630158901215,2.56319737434387,0.43536964058876,18,3413802036168,8055
-1.39027392864227,3.79157328605652,0.435667872428894,64,3413802116952,8055
NaN,NaN,NaN,NaN,NaN,NaN
-1.40428698062897,3.84021186828613,0.299988061189651,63,3413802171600,8055
-1.41361451148987,3.87305188179016,0.203934192657471,53,3413802209616,8055
-1.15833103656769,3.18874287605286,-0.0342925637960434,5,3413802304656,8055
NaN,NaN,NaN,NaN,NaN,NaN
-0.989172637462616,2.72761988639832,-0.0898087918758392,4,3413802337920,8055
-0.801948189735413,2.21717500686646,-0.150356292724609,6,3413802390192,8055
-0.668533444404602,1.8536479473114,-0.196522563695908,9,3413802447216,8055
-0.662237882614136,1.83641290664673,-0.197627246379852,10,3413802449592,8055
-0.62494957447052,1.73467874526978,-0.20886342227459,9,3413802468600,8055
-0.510813355445862,1.42334985733032,-0.244695439934731,4,3413802544632,8055
-0.430162847042084,1.20356690883636,-0.273786038160324,22,3413802625416,8055
-0.42306712269783,1.18414461612701,-0.27523410320282,23,3413802632544,8055
-0.418101191520691,1.17081391811371,-0.279886186122894,25,3413802642048,8055
0.380067646503448,-1.32358813285828,-0.54174816608429,22,3413806707384,8055
0.392986953258514,-1.36977934837341,-0.54598206281662,24,3413806721640,8055
0.440244048833847,-1.54079127311707,-0.538580179214478,4,3413806788168,8055
0.468614757061005,-1.64900076389313,-0.472972363233566,64,3413806876080,8055
0.471971243619919,-1.66447353363037,-0.436040431261063,20,3413806911720,8055
0.440613061189651,-1.56929624080658,-0.241737946867943,5,3413807070912,8055
NaN,NaN,NaN,NaN,NaN,NaN
0.439710229635239,-1.56631195545197,-0.238803148269653,8,3413807073288,8055
0.43593293428421,-1.55930149555206,-0.169157758355141,5,3413807139816,8055
1.53118300437927,-5.54080009460449,0.0684935972094536,5,3413807325144,8055
1.53218901157379,-5.54526805877686,0.0771061033010483,5,3413807327520,8055
1.52869319915771,-5.53839921951294,0.136843964457512,9,3413807344152,8055
1.51758062839508,-5.51459503173828,0.306632399559021,9,3413807391672,8055
0.530259251594543,-1.93494844436646,0.19158747792244,17,3413807458200,8055
NaN,NaN,NaN,NaN,NaN,NaN
0.523984432220459,-1.92125499248505,0.286323308944702,47,3413807534232,8055
1.07531762123108,-4.10526037216187,2.52619528770447,14,3413808163872,8055
NaN,NaN,NaN,NaN,NaN,NaN
1.0671638250351,-4.08169507980347,2.61448001861572,13,3413808192384,8055
1.0181725025177,-3.91002488136292,2.72554349899292,11,3413808254160,8055
0.974612414836884,-3.75204849243164,2.75145697593689,12,3413808292176,8055
0.592915952205658,-2.30150651931763,1.98595285415649,17,3413808418104,8055
0.599458515644073,-2.33089733123779,2.07890677452087,141,3413808444240,8055
0.605566084384918,-2.35906052589417,2.18088626861572,62,3413808472752,8055
NaN,NaN,NaN,NaN,NaN,NaN
0.623650908470154,-2.43673777580261,2.38372802734375,102,3413808517896,8055
0.485279709100723,-1.91220855712891,2.1959707736969,29,3413808646200,8055
0.486325323581696,-1.91662955284119,2.20762348175049,13,3413808648576,8055
NaN,NaN,NaN,NaN,NaN,NaN
0.391459554433823,-1.57267892360687,2.64960336685181,112,3413808938448,8055
0.406576752662659,-1.63779103755951,2.9224169254303,80,3413808978840,8055
NaN,NaN,NaN,NaN,NaN,NaN
0.27432569861412,-1.10940527915955,2.16090273857117,90,3413809038240,8055
0.231408804655075,-0.942316234111786,2.16691899299622,81,3413809142784,8055
0.208443835377693,-0.852106034755707,2.17219138145447,89,3413809202184,8055
0.244924873113632,-1.00632989406586,2.97781157493591,89,3413809280592,8055
0.208185166120529,-0.859505474567413,2.99509692192078,154,3413809356624,8055
0.134484484791756,-0.556693851947784,2.15000796318054,110,3413809399392,8055
0.114625558257103,-0.476164877414703,2.15840148925781,36,3413809458792,8055
0.144992038607597,-0.603362202644348,3.00270009040833,25,3413809489680,8055
NaN,NaN,NaN,NaN,NaN,NaN
-0.0064269257709384,0.0298298485577106,2.2686755657196,8,3413809836576,8055
NaN,NaN,NaN,NaN,NaN,NaN
-0.0445775464177132,0.195060580968857,2.27179384231567,34,3413809955376,8055
-0.0698742792010307,0.306207865476608,2.27894973754883,29,3413810033784,8055
-0.0729387104511261,0.319758772850037,2.27935743331909,31,3413810043288,8055
-0.0861509367823601,0.378388404846191,2.28533673286438,39,3413810083680,8055
-0.110979534685612,0.489511728286743,2.28943157196045,44,3413810159712,8055
-0.115832433104515,0.511357963085175,2.29341840744019,45,3413810173968,8055
NaN,NaN,NaN,NaN,NaN,NaN
-0.193549796938896,0.859530448913574,3.03205299377441,108,3413810266632,8055
-0.233467862010002,1.04180693626404,3.14324164390564,77,3413810337912,8055
-0.240047305822372,1.07221901416779,3.1424241065979,69,3413810352168,8055
-0.276156395673752,1.23987996578217,3.15737724304199,71,3413810425824,8055
-0.299210399389267,1.34771025180817,3.16957569122314,69,3413810470968,8055
-0.335735678672791,1.52002334594727,3.17839980125427,73,3413810542248,8055
-0.368473291397095,1.68019390106201,3.02920174598694,53,3413810639664,8055
-0.353620976209641,1.62131452560425,2.6317298412323,118,3413810713320,8055
-0.344192922115326,1.58683109283447,2.32957124710083,64,3413810786976,8055
-0.437346041202545,2.03973865509033,2.45684909820557,16,3413810939040,8055
-0.43913871049881,2.04959297180176,2.43905878067017,24,3413810948544,8055
-0.453707844018936,2.12146043777466,2.44966173171997,23,3413810972304,8055
-0.501566410064697,2.36035227775574,2.45442986488342,19,3413811055464,8055
-0.507840514183044,2.39164113998413,2.45744919776917,18,3413811064968,8055
-0.530195474624634,2.50153565406799,2.4947772026062,16,3413811088728,8055
-0.752579748630524,3.576584815979,3.17349982261658,34,3413811181392,8055
-0.762328207492828,3.63784575462341,3.01965975761414,33,3413811233664,8055
-0.774542152881622,3.71773934364319,2.80466842651367,34,3413811307320,8055
-0.784391283988953,3.7771315574646,2.70097613334656,33,3413811347712,8055
-0.792665541172028,3.83513617515564,2.53017854690552,33,3413811407112,8055
-0.792613685131073,3.83707714080811,2.50667262077332,34,3413811414240,8055
-0.806831538677216,3.9283664226532,2.3201904296875,35,3413811485520,8055
-0.807082951068878,3.93336176872253,2.28333592414856,34,3413811497400,8055
-0.816687643527985,3.99936461448669,2.12426900863647,33,3413811556800,8055
-0.830124318599701,4.09440135955811,1.88960671424866,33,3413811644712,8055
-0.843012273311615,4.19139003753662,1.62754714488983,39,3413811742128,8055
-0.854158580303192,4.27194499969482,1.43930196762085,44,3413811813408,8055
-0.861528873443604,4.32759714126587,1.2992035150528,48,3413811865680,8055
-0.865229368209839,4.36609601974487,1.14653432369232,39,3413811920328,8055
-0.871820330619812,4.41342449188232,1.04525053501129,41,3413811958344,8055
-0.711898326873779,3.63363718986511,0.62518584728241,35,3413812055760,8055
-0.550735294818878,2.90306305885315,-0.196533113718033,4,3413812428792,8055
-0.47135791182518,2.49298310279846,-0.229546055197716,7,3413812466808,8055
-0.455463379621506,2.41094088554382,-0.236720398068428,8,3413812476312,8055
-0.391282200813293,2.07950329780579,-0.264726102352142,7,3413812521456,8055
-0.316869288682938,1.69475626945496,-0.294380187988281,9,3413812592736,8055
-0.306399464607239,1.64050126075745,-0.297743707895279,9,3413812604616,8055
-0.245344683527946,1.3161256313324,-0.25740522146225,10,3413812626000,8055
-0.239736050367355,1.29515194892883,-0.321021884679794,12,3413812704408,8055
-0.231892019510269,1.25439238548279,-0.323000639677048,26,3413812718664,8055
0.147591054439545,-1.22255945205688,-0.480217486619949,20,3413816745984,8055
0.152396485209465,-1.26483154296875,-0.483754754066467,22,3413816760240,8055
0.158190429210663,-1.31634700298309,-0.485468685626984,22,3413816779248,8055
0.196212962269783,-1.65321528911591,-0.504944264888763,21,3413816869536,8055
0.217761725187302,-1.85554790496826,-0.464961320161819,4,3413816950320,8055
NaN,NaN,NaN,NaN,NaN,NaN
0.250076144933701,-2.17790746688843,-0.325137674808502,5,3413817104760,8055
NaN,NaN,NaN,NaN,NaN,NaN
0.473445147275925,-4.14710140228271,-0.511592090129852,4,3413817145152,8055
0.234359875321388,-2.07189226150513,-0.170942589640617,10,3413817209304,8055
0.230277001857758,-2.04703545570374,-0.119618780910969,93,3413817247320,8055
0.482916712760925,-4.35590839385986,0.0195498336106539,67,3413817347112,8055
0.481427878141403,-4.3516001701355,0.0586018413305283,32,3413817361368,8055
0.54448127746582,-5.01253032684326,0.458678781986237,9,3413817484920,8055
0.467289686203003,-4.70254564285278,2.27789449691772,24,3413818057536,8055
0.463250696659088,-4.68895530700684,2.40215873718262,20,3413818093176,8055
NaN,NaN,NaN,NaN,NaN,NaN
0.323650568723679,-3.3603196144104,2.15503001213074,15,3413818247616,8055
0.278153538703918,-2.92144989967346,2.0567090511322,36,3413818316520,8055
0.278297632932663,-2.92413234710693,2.06511163711548,40,3413818318896,8055
0.27795621752739,-2.96916341781616,2.38090348243713,18,3413818416312,8055
0.274576723575592,-2.93782377243042,2.38462162017822,16,3413818425816,8055
0.267403960227966,-2.87273168563843,2.40351486206055,58,3413818449576,8055
0.267047733068466,-2.87007355690002,2.40855431556702,53,3413818451952,8055
0.261933296918869,-2.85460138320923,2.65256237983704,48,3413818532736,8055
0.253937661647797,-2.81262493133545,2.93493247032166,30,3413818625400,8055
0.253486901521683,-2.80998063087463,2.94966578483582,68,3413818630152,8055
0.17989207804203,-2.03579258918762,2.47477149963379,14,3413818746576,8055
0.20821850001812,-2.35936450958252,2.89429593086243,35,3413818753704,8055
0.17498117685318,-1.98697328567505,2.47476029396057,21,3413818765584,8055
0.14157472550869,-1.63546097278595,2.30482339859009,56,3413818860624,8055
NaN,NaN,NaN,NaN,NaN,NaN
0.140745341777802,-1.6272851228714,2.307785987854,82,3413818865376,8055
0.140090882778168,-1.62111902236938,2.31359267234802,60,3413818870128,8055
0.117342166602612,-1.3774801492691,2.1863157749176,77,3413818948536,8055
0.108725935220718,-1.28812062740326,2.19312882423401,88,3413818998432,8055
NaN,NaN,NaN,NaN,NaN,NaN
0.101373806595802,-1.21056389808655,2.19315624237061,83,3413819041200,8055
0.0996511951088905,-1.1926201581955,2.19904613494873,88,3413819053080,8055
0.113007910549641,-1.37970721721649,3.00688862800598,93,3413819160000,8055
0.105420015752316,-1.29625701904297,3.0115761756897,90,3413819198016,8055
0.0891278833150864,-1.11360788345337,3.02196955680847,92,3413819283552,8055
0.0580378957092762,-0.731277763843536,2.17112874984741,109,3413819328696,8055
0.0476637966930866,-0.609553813934326,2.16488099098206,37,3413819409480,8055
0.0552197247743607,-0.714903771877289,3.03348517417908,30,3413819478384,8055
0.0355613678693771,-0.463756322860718,2.23325276374817,7,3413819521152,8055
0.0351305045187473,-0.458317399024963,2.22362399101257,8,3413819523528,8055
-0.00873070117086172,0.136175498366356,3.0566668510437,34,3413819920320,8055
-0.0132654374465346,0.202519088983536,2.26801347732544,32,3413819991600,8055
-0.0158400852233171,0.241955682635307,2.25529837608337,29,3413820020112,8055
-0.017518263310194,0.267916083335876,2.27415990829468,26,3413820036744,8055
-0.0189431495964527,0.290196627378464,2.26078987121582,29,3413820053376,8055
-0.0271891485899687,0.422384053468704,2.26836466789246,41,3413820143664,8055
-0.0460085943341255,0.72528749704361,3.09554600715637,48,3413820217320,8055
-0.0493264757096767,0.782359063625336,3.09002089500427,51,3413820245832,8055
-0.0560259409248829,0.90003365278244,3.08759570121765,67,3413820302856,8055
-0.0690494626760483,1.13845598697662,3.09944677352905,79,3413820412152,8055
-0.0820766091346741,1.39098250865936,3.11141538619995,84,3413820521448,8055
NaN,NaN,NaN,NaN,NaN,NaN
-0.0779726803302765,1.34291136264801,2.7168345451355,87,3413820583224,8055
-0.0880265161395073,1.53343391418457,2.90388774871826,53,3413820625992,8055
-0.0825114175677299,1.47418212890625,2.43789529800415,109,3413820718656,8055
-0.0823201462626457,1.47173535823822,2.42569065093994,87,3413820721032,8055
-0.0805121287703514,1.4596700668335,2.244544506073,152,3413820770928,8055
-0.085735559463501,1.57986211776733,2.24932718276978,44,3413820827952,8055
-0.100070007145405,1.88669085502625,2.42379570007324,20,3413820906360,8055
-0.106646537780762,2.07193684577942,2.34357047080994,25,3413821006152,8055
-0.111334636807442,2.19331455230713,2.3437831401825,23,3413821051296,8055
-0.157933071255684,3.15793180465698,3.17930102348328,20,3413821098816,8055
-0.162698104977608,3.28523778915405,3.18184566497803,22,3413821129704,8055
-0.170844122767448,3.5055239200592,3.18891763687134,18,3413821179600,8055
-0.136241391301155,2.85721039772034,2.38925361633301,9,3413821246128,8055
-0.140788048505783,2.98315572738647,2.39797234535217,31,3413821277016,8055
-0.142336368560791,3.06237149238586,2.32212162017822,32,3413821322160,8055
-0.207273378968239,4.57445096969604,3.14704656600952,30,3413821395816,8055
-0.207467809319496,4.61330080032349,3.08348226547241,28,3413821417200,8055
-0.207357123494148,4.72991418838501,2.86429929733276,10,3413821488480,8055
-0.206256538629532,4.85111379623413,2.60229992866516,29,3413821571640,8055
-0.206281527876854,4.88645553588867,2.54674029350281,30,3413821590648,8055
-0.205609932541847,4.97755908966064,2.37197375297546,29,3413821647672,8055
-0.20452281832695,5.12984609603882,2.0972216129303,30,3413821737960,8055
-0.203921362757683,5.16380929946899,2.02186679840088,33,3413821761720,8055
-0.203141614794731,5.22934436798096,1.89626979827881,32,3413821802112,8055
-0.202085450291634,5.30041027069092,1.7539838552475,33,3413821847256,8055
-0.0289340615272522,1.24849784374237,-0.337598204612732,17,3413822778648,8055
-0.0523066818714142,-1.29846596717834,-0.431141763925552,20,3413826862992,8055
-0.0678049847483635,-1.62118768692017,-0.433120608329773,20,3413826958032,8055
-0.0845481902360916,-1.96724212169647,-0.43252295255661,15,3413827029312,8055
-0.108588457107544,-2.43521451950073,-0.377781569957733,5,3413827129104,8055
-0.212765857577324,-4.62436580657959,-0.458501219749451,4,3413827217016,8055
-0.156381741166115,-3.28936338424683,-0.129243239760399,7,3413827312056,8055
-0.22620390355587,-4.60970592498779,0.0935584157705307,55,3413827407096,8055
-0.22633920609951,-4.60529899597168,0.107192136347294,49,3413827411848,8055
-0.118269816040993,-2.05609226226807,0.752858102321625,33,3413827934568,8055
-0.118938714265823,-2.04745388031006,0.802026510238647,42,3413827970208,8055
NaN,NaN,NaN,NaN,NaN,NaN
NaN,NaN,NaN,NaN,NaN,NaN
-0.120356269180775,-2.03334522247314,0.899648785591125,80,3413828039112,8055
-0.241940036416054,-3.93864631652832,2.17454838752747,28,3413828179296,8055
-0.250534564256668,-4.04119873046875,2.35049748420715,31,3413828214936,8055
-0.222168043255806,-3.50033497810364,2.31792497634888,29,3413828307600,8055
-0.209868684411049,-3.26188087463379,2.32457780838013,33,3413828362248,8055
NaN,NaN,NaN,NaN,NaN,NaN
-0.203860014677048,-3.14449882507324,2.33403420448303,31,3413828393136,8055
-0.180693194270134,-2.71151804924011,2.33069729804993,80,3413828507184,8055
-0.180240765213966,-2.64502620697021,2.56261014938354,8,3413828602224,8055
-0.1469447016716,-2.12250185012817,2.24188303947449,67,3413828671128,8055
-0.137735366821289,-1.96187090873718,2.23977327346802,72,3413828732904,8055
-0.133687794208527,-1.89111387729645,2.24518036842346,67,3413828763792,8055
NaN,NaN,NaN,NaN,NaN,NaN
-0.121221676468849,-1.68015885353088,2.24734139442444,77,3413828856456,8055
-0.117589041590691,-1.62060499191284,2.24331474304199,76,3413828882592,8055
-0.108959645032883,-1.47969341278076,2.24633979797363,80,3413828951496,8055
-0.107126146554947,-1.45041120052338,2.24524521827698,85,3413828965752,8055
-0.132442474365234,-1.76663625240326,3.02248239517212,70,3413829037032,8055
NaN,NaN,NaN,NaN,NaN,NaN
-0.132326290011406,-1.7607558965683,3.0644862651825,70,3413829048912,8055
-0.123968362808228,-1.63197350502014,3.06845784187317,90,3413829101184,8055
NaN,NaN,NaN,NaN,NaN,NaN
-0.117823578417301,-1.53920841217041,3.06784701347351,86,3413829139200,8055
NaN,NaN,NaN,NaN,NaN,NaN
-0.0768164917826653,-0.990784466266632,2.18973970413208,151,3413829203352,8055
-0.0656173080205917,-0.830553948879242,2.18008279800415,64,3413829300768,8055
-0.0790309384465218,-0.984571695327759,3.06794476509094,37,3413829386304,8055
-0.0768374279141426,-0.954784691333771,3.06881666183472,36,3413829400560,8055
-0.0739222466945648,-0.915447592735291,3.07046580314636,36,3413829419568,8055
-0.0701433271169662,-0.865024983882904,3.06689214706421,37,3413829443328,8055
